ply
		format ascii 1.0
		element vertex 66726
		property float x
		property float y
		property float z
		property uchar red
		property uchar green
		property uchar blue
		end_header
123.000000 -167.000000 0.399000 133 183 208
124.000000 -167.000000 0.399000 133 183 208
125.000000 -167.000000 -0.798000 133 183 208
126.000000 -167.000000 -3.192000 133 184 208
127.000000 -167.000000 -3.192000 133 184 209
128.000000 -167.000000 -3.192000 134 184 209
129.000000 -167.000000 -3.192000 133 184 209
132.000000 -167.000000 -0.199500 133 183 208
138.000000 -167.000000 2.593500 134 185 210
139.000000 -167.000000 2.793000 133 185 209
140.000000 -167.000000 3.990000 134 185 210
141.000000 -167.000000 3.990000 134 185 210
142.000000 -167.000000 3.990000 133 185 210
143.000000 -167.000000 5.985000 133 184 210
144.000000 -167.000000 7.980000 134 185 211
145.000000 -167.000000 9.974999 134 186 211
146.000000 -167.000000 9.974999 134 185 211
174.000000 -167.000000 172.367996 136 187 215
175.000000 -167.000000 172.367996 135 186 214
184.000000 -167.000000 157.205994 134 185 213
185.000000 -167.000000 168.976501 134 186 213
186.000000 -167.000000 168.976501 134 186 214
187.000000 -167.000000 169.175995 135 187 215
188.000000 -167.000000 166.183502 136 188 215
189.000000 -167.000000 166.582489 136 187 215
190.000000 -167.000000 166.582489 136 187 216
191.000000 -167.000000 166.582489 136 187 215
194.000000 -167.000000 -3.192000 135 187 214
195.000000 -167.000000 -3.192000 135 187 213
196.000000 -167.000000 -1.197000 136 187 214
197.000000 -167.000000 -0.598500 137 188 214
198.000000 -167.000000 -0.798000 136 188 213
199.000000 -167.000000 -0.598500 136 188 213
200.000000 -167.000000 -0.399000 136 188 214
201.000000 -167.000000 -0.199500 136 188 214
202.000000 -167.000000 0.000000 135 187 214
203.000000 -167.000000 0.000000 135 187 213
204.000000 -167.000000 0.399000 136 187 214
205.000000 -167.000000 0.598500 136 187 214
206.000000 -167.000000 0.598500 136 187 213
207.000000 -167.000000 0.598500 135 186 213
208.000000 -167.000000 0.000000 135 186 213
209.000000 -167.000000 -0.199500 135 186 213
210.000000 -167.000000 -0.399000 136 186 213
211.000000 -167.000000 0.000000 136 186 213
212.000000 -167.000000 0.000000 135 186 213
213.000000 -167.000000 0.000000 134 185 213
214.000000 -167.000000 0.199500 134 186 212
215.000000 -167.000000 0.199500 135 186 212
216.000000 -167.000000 0.199500 135 186 212
217.000000 -167.000000 -0.199500 135 186 212
218.000000 -167.000000 -3.192000 134 185 211
219.000000 -167.000000 -3.192000 134 185 211
220.000000 -167.000000 -3.192000 133 184 210
221.000000 -167.000000 -3.192000 133 184 210
222.000000 -167.000000 -0.798000 133 184 211
223.000000 -167.000000 -0.399000 133 184 211
224.000000 -167.000000 0.000000 134 185 212
225.000000 -167.000000 0.399000 134 185 212
226.000000 -167.000000 0.598500 133 184 211
227.000000 -167.000000 0.598500 133 184 210
228.000000 -167.000000 0.399000 132 183 210
229.000000 -167.000000 0.199500 132 183 210
230.000000 -167.000000 0.000000 132 184 210
231.000000 -167.000000 0.000000 132 183 210
232.000000 -167.000000 0.000000 132 184 210
233.000000 -167.000000 -0.399000 133 184 210
234.000000 -167.000000 -0.598500 133 184 211
235.000000 -167.000000 -0.598500 133 184 210
236.000000 -167.000000 -0.798000 132 183 210
237.000000 -167.000000 -0.798000 132 183 210
238.000000 -167.000000 -0.997500 133 184 210
239.000000 -167.000000 -0.798000 133 184 210
240.000000 -167.000000 -0.598500 132 183 210
241.000000 -167.000000 0.000000 133 184 211
242.000000 -167.000000 0.199500 133 184 210
243.000000 -167.000000 0.598500 133 183 210
244.000000 -167.000000 0.598500 130 179 205
63.000000 -168.000000 -1.197000 135 107 114
64.000000 -168.000000 -0.798000 135 105 113
65.000000 -168.000000 167.380493 119 93 100
66.000000 -168.000000 168.178497 97 77 82
67.000000 -168.000000 168.377991 89 71 76
68.000000 -168.000000 169.375488 81 64 68
69.000000 -168.000000 169.574997 75 61 64
70.000000 -168.000000 169.375488 69 57 59
79.000000 -168.000000 184.337997 85 73 78
80.000000 -168.000000 184.537491 101 90 94
81.000000 -168.000000 184.537491 134 124 126
82.000000 -168.000000 184.138489 134 124 126
83.000000 -168.000000 184.936493 116 108 113
84.000000 -168.000000 184.936493 109 102 109
85.000000 -168.000000 185.136002 110 104 110
86.000000 -168.000000 185.136002 112 108 114
89.000000 -168.000000 163.589996 114 112 117
90.000000 -168.000000 163.789490 111 110 115
91.000000 -168.000000 163.988998 110 111 115
92.000000 -168.000000 163.988998 112 113 117
93.000000 -168.000000 162.791992 122 125 128
94.000000 -168.000000 162.592499 159 163 163
106.000000 -168.000000 -3.192000 133 183 206
107.000000 -168.000000 2.593500 132 183 206
108.000000 -168.000000 2.593500 132 183 206
109.000000 -168.000000 3.591000 132 183 207
110.000000 -168.000000 3.192000 132 183 207
111.000000 -168.000000 -0.997500 132 182 207
112.000000 -168.000000 -0.997500 131 181 206
113.000000 -168.000000 -0.997500 131 181 206
114.000000 -168.000000 -0.199500 131 181 206
115.000000 -168.000000 -0.798000 131 181 206
116.000000 -168.000000 -0.199500 131 182 207
117.000000 -168.000000 -0.399000 132 182 207
118.000000 -168.000000 -0.399000 132 182 207
119.000000 -168.000000 -3.192000 132 182 207
123.000000 -168.000000 3.990000 132 182 207
124.000000 -168.000000 3.192000 132 182 207
125.000000 -168.000000 0.399000 133 183 208
126.000000 -168.000000 -3.192000 133 183 208
127.000000 -168.000000 -3.192000 133 183 209
128.000000 -168.000000 -3.192000 133 183 208
129.000000 -168.000000 -3.192000 132 183 208
130.000000 -168.000000 -0.199500 132 183 208
131.000000 -168.000000 0.199500 132 183 208
132.000000 -168.000000 1.197000 132 183 208
133.000000 -168.000000 1.795500 132 183 208
138.000000 -168.000000 2.593500 134 184 210
139.000000 -168.000000 2.793000 133 184 210
140.000000 -168.000000 3.990000 133 184 210
141.000000 -168.000000 3.990000 132 184 210
142.000000 -168.000000 5.785500 132 184 210
143.000000 -168.000000 6.583500 133 184 210
144.000000 -168.000000 7.980000 134 185 211
145.000000 -168.000000 7.980000 133 185 210
174.000000 -168.000000 156.607498 135 186 213
175.000000 -168.000000 157.205994 135 186 214
176.000000 -168.000000 156.607498 135 186 214
183.000000 -168.000000 156.607498 134 185 212
184.000000 -168.000000 157.205994 134 185 212
185.000000 -168.000000 159.599991 134 185 213
186.000000 -168.000000 163.390503 135 186 214
187.000000 -168.000000 163.390503 135 187 214
188.000000 -168.000000 163.390503 136 188 215
189.000000 -168.000000 165.983994 136 187 215
190.000000 -168.000000 165.983994 136 187 214
194.000000 -168.000000 -3.192000 135 186 213
195.000000 -168.000000 -3.192000 135 186 213
196.000000 -168.000000 -3.192000 136 187 214
197.000000 -168.000000 -1.197000 136 187 214
198.000000 -168.000000 -1.396500 136 188 214
199.000000 -168.000000 -0.997500 136 188 214
200.000000 -168.000000 -0.798000 136 187 213
201.000000 -168.000000 -0.399000 136 187 214
202.000000 -168.000000 0.000000 136 187 214
203.000000 -168.000000 0.000000 136 187 214
204.000000 -168.000000 0.399000 136 187 214
205.000000 -168.000000 0.399000 136 187 214
206.000000 -168.000000 0.598500 135 186 213
207.000000 -168.000000 0.598500 135 186 213
208.000000 -168.000000 0.000000 135 186 213
209.000000 -168.000000 -0.399000 135 186 213
210.000000 -168.000000 -0.598500 135 186 213
211.000000 -168.000000 -0.798000 136 187 213
212.000000 -168.000000 -3.192000 136 187 214
213.000000 -168.000000 -1.197000 135 186 213
214.000000 -168.000000 -0.997500 135 186 213
215.000000 -168.000000 -0.199500 135 186 213
216.000000 -168.000000 -0.598500 135 186 213
217.000000 -168.000000 -0.798000 135 186 212
218.000000 -168.000000 -3.192000 134 185 211
219.000000 -168.000000 -3.192000 133 185 210
220.000000 -168.000000 -3.192000 133 184 211
221.000000 -168.000000 -3.192000 133 184 211
222.000000 -168.000000 -3.192000 133 184 211
223.000000 -168.000000 -0.997500 133 184 211
224.000000 -168.000000 -0.399000 133 184 211
225.000000 -168.000000 0.000000 134 184 211
226.000000 -168.000000 0.399000 133 184 211
227.000000 -168.000000 0.399000 133 184 211
228.000000 -168.000000 0.000000 133 184 211
229.000000 -168.000000 0.000000 133 184 211
230.000000 -168.000000 0.000000 132 183 210
231.000000 -168.000000 0.000000 132 183 210
232.000000 -168.000000 -0.199500 132 183 209
233.000000 -168.000000 -0.598500 132 183 210
234.000000 -168.000000 -0.598500 132 183 210
235.000000 -168.000000 -1.197000 132 183 210
236.000000 -168.000000 -0.798000 131 182 209
237.000000 -168.000000 -0.798000 132 183 210
238.000000 -168.000000 -0.798000 133 183 210
239.000000 -168.000000 -0.798000 132 183 210
240.000000 -168.000000 -0.798000 132 183 210
241.000000 -168.000000 -0.399000 132 183 210
242.000000 -168.000000 0.000000 132 183 210
243.000000 -168.000000 0.399000 132 182 209
244.000000 -168.000000 0.399000 129 178 204
63.000000 -169.000000 -0.997500 136 107 114
64.000000 -169.000000 -0.598500 136 106 114
65.000000 -169.000000 167.181000 120 95 101
66.000000 -169.000000 167.181000 96 76 82
67.000000 -169.000000 167.181000 87 70 76
68.000000 -169.000000 168.377991 80 64 69
69.000000 -169.000000 169.175995 74 61 64
78.000000 -169.000000 162.791992 79 68 73
79.000000 -169.000000 163.390503 84 73 77
80.000000 -169.000000 163.589996 100 89 93
81.000000 -169.000000 163.390503 134 123 126
84.000000 -169.000000 184.138489 108 102 108
85.000000 -169.000000 185.136002 109 103 109
86.000000 -169.000000 185.136002 111 106 112
89.000000 -169.000000 163.190994 112 110 116
90.000000 -169.000000 163.589996 109 108 113
91.000000 -169.000000 163.789490 107 108 112
92.000000 -169.000000 163.589996 108 109 113
93.000000 -169.000000 162.991501 117 121 123
94.000000 -169.000000 162.791992 154 158 158
106.000000 -169.000000 2.793000 131 181 204
107.000000 -169.000000 3.192000 131 181 204
108.000000 -169.000000 3.591000 131 182 204
109.000000 -169.000000 4.588500 132 182 205
110.000000 -169.000000 4.588500 131 182 205
111.000000 -169.000000 -0.997500 130 180 204
112.000000 -169.000000 -0.997500 130 180 204
113.000000 -169.000000 -0.997500 131 181 204
114.000000 -169.000000 -0.199500 130 181 204
115.000000 -169.000000 -0.199500 130 180 204
116.000000 -169.000000 0.000000 130 180 204
117.000000 -169.000000 0.399000 130 181 204
118.000000 -169.000000 0.399000 131 182 205
122.000000 -169.000000 3.990000 133 183 208
123.000000 -169.000000 6.384000 132 183 207
124.000000 -169.000000 6.384000 132 183 207
125.000000 -169.000000 0.997500 133 183 207
130.000000 -169.000000 0.000000 132 183 207
131.000000 -169.000000 0.199500 131 183 207
132.000000 -169.000000 1.396500 132 182 207
133.000000 -169.000000 3.591000 132 182 208
134.000000 -169.000000 3.591000 132 182 208
139.000000 -169.000000 2.793000 132 183 209
140.000000 -169.000000 3.591000 132 183 209
141.000000 -169.000000 3.990000 132 183 209
142.000000 -169.000000 5.187000 132 183 209
143.000000 -169.000000 6.583500 133 183 210
144.000000 -169.000000 7.980000 133 184 210
145.000000 -169.000000 9.974999 133 184 210
146.000000 -169.000000 10.174500 134 185 210
169.000000 -169.000000 157.205994 135 186 213
173.000000 -169.000000 157.804489 134 185 212
174.000000 -169.000000 158.802002 134 185 212
175.000000 -169.000000 157.205994 134 185 212
176.000000 -169.000000 156.607498 135 186 213
179.000000 -169.000000 162.592499 135 186 212
181.000000 -169.000000 156.607498 135 186 213
182.000000 -169.000000 156.607498 134 185 212
183.000000 -169.000000 157.205994 135 185 212
184.000000 -169.000000 157.405502 135 186 213
185.000000 -169.000000 159.599991 135 186 213
186.000000 -169.000000 159.998993 135 186 213
187.000000 -169.000000 160.996490 136 187 214
188.000000 -169.000000 160.996490 137 187 214
189.000000 -169.000000 165.385498 136 187 214
190.000000 -169.000000 165.385498 136 187 214
194.000000 -169.000000 -3.192000 136 187 213
195.000000 -169.000000 -3.192000 135 186 213
196.000000 -169.000000 -3.192000 135 186 213
197.000000 -169.000000 -1.396500 136 187 214
198.000000 -169.000000 -1.396500 136 187 214
199.000000 -169.000000 -1.197000 136 187 213
200.000000 -169.000000 -0.997500 135 187 213
201.000000 -169.000000 -0.598500 136 187 213
202.000000 -169.000000 -0.199500 136 187 213
203.000000 -169.000000 0.000000 136 187 213
204.000000 -169.000000 0.199500 136 187 213
205.000000 -169.000000 0.399000 136 187 213
206.000000 -169.000000 0.399000 135 186 213
207.000000 -169.000000 0.598500 135 186 213
208.000000 -169.000000 0.000000 135 186 213
209.000000 -169.000000 -0.399000 135 186 213
210.000000 -169.000000 -0.798000 134 186 212
211.000000 -169.000000 -3.192000 135 186 213
212.000000 -169.000000 -3.192000 136 187 214
213.000000 -169.000000 -3.192000 135 186 213
214.000000 -169.000000 -1.197000 135 186 213
215.000000 -169.000000 -0.997500 135 186 212
216.000000 -169.000000 -0.798000 135 186 212
217.000000 -169.000000 -0.798000 135 186 212
218.000000 -169.000000 -3.192000 134 185 212
219.000000 -169.000000 -3.192000 134 185 211
220.000000 -169.000000 -3.192000 133 184 211
221.000000 -169.000000 -3.192000 133 184 211
222.000000 -169.000000 -3.192000 132 183 210
223.000000 -169.000000 -1.396500 132 184 210
224.000000 -169.000000 -0.997500 132 184 210
225.000000 -169.000000 -0.399000 133 184 210
226.000000 -169.000000 0.000000 133 184 210
227.000000 -169.000000 0.000000 133 184 211
228.000000 -169.000000 0.000000 133 184 211
229.000000 -169.000000 0.000000 133 184 211
230.000000 -169.000000 0.000000 132 183 210
231.000000 -169.000000 0.000000 132 183 209
232.000000 -169.000000 -0.199500 132 183 209
233.000000 -169.000000 -0.598500 133 184 210
234.000000 -169.000000 -0.997500 132 183 210
235.000000 -169.000000 -1.197000 132 183 209
236.000000 -169.000000 -0.997500 131 182 209
237.000000 -169.000000 -0.798000 131 182 209
238.000000 -169.000000 -0.798000 132 183 210
239.000000 -169.000000 -0.598500 132 183 210
240.000000 -169.000000 -0.798000 132 182 209
241.000000 -169.000000 -0.399000 132 183 210
242.000000 -169.000000 0.000000 132 183 210
243.000000 -169.000000 0.399000 131 182 209
244.000000 -169.000000 0.399000 128 178 204
63.000000 -170.000000 -0.598500 136 107 114
64.000000 -170.000000 -0.598500 136 107 114
65.000000 -170.000000 166.981491 121 95 102
73.000000 -170.000000 161.195999 63 52 56
74.000000 -170.000000 162.791992 73 63 67
75.000000 -170.000000 162.791992 79 68 73
76.000000 -170.000000 162.791992 79 68 74
77.000000 -170.000000 162.791992 77 66 72
78.000000 -170.000000 162.791992 77 66 72
79.000000 -170.000000 163.190994 82 71 77
80.000000 -170.000000 163.390503 100 89 93
85.000000 -170.000000 184.936493 108 102 108
89.000000 -170.000000 162.791992 110 109 115
90.000000 -170.000000 163.190994 107 106 112
91.000000 -170.000000 163.190994 105 105 110
92.000000 -170.000000 163.190994 106 107 111
93.000000 -170.000000 162.991501 115 118 120
94.000000 -170.000000 162.791992 150 154 155
98.000000 -170.000000 197.903992 93 99 96
99.000000 -170.000000 194.911499 69 75 72
105.000000 -170.000000 3.192000 130 180 203
106.000000 -170.000000 3.192000 130 180 203
107.000000 -170.000000 3.591000 130 181 204
108.000000 -170.000000 4.189500 131 181 204
109.000000 -170.000000 4.987500 131 181 204
110.000000 -170.000000 4.987500 130 180 203
111.000000 -170.000000 -0.199500 129 180 202
112.000000 -170.000000 -0.199500 129 180 202
113.000000 -170.000000 -0.199500 130 180 203
114.000000 -170.000000 -0.199500 130 180 204
115.000000 -170.000000 -0.199500 130 181 204
116.000000 -170.000000 0.000000 131 181 204
117.000000 -170.000000 0.399000 131 181 204
118.000000 -170.000000 0.399000 131 181 204
119.000000 -170.000000 0.399000 131 182 205
122.000000 -170.000000 4.588500 133 183 207
123.000000 -170.000000 6.384000 133 183 208
124.000000 -170.000000 6.384000 132 183 207
130.000000 -170.000000 0.199500 132 182 207
131.000000 -170.000000 0.399000 131 183 207
132.000000 -170.000000 1.795500 132 182 207
133.000000 -170.000000 3.591000 132 182 207
134.000000 -170.000000 3.591000 132 182 207
139.000000 -170.000000 2.793000 132 182 207
140.000000 -170.000000 3.391500 131 182 207
141.000000 -170.000000 3.591000 131 182 208
142.000000 -170.000000 3.990000 132 183 209
143.000000 -170.000000 5.586000 132 183 209
144.000000 -170.000000 7.581000 132 183 209
145.000000 -170.000000 10.174500 133 183 210
146.000000 -170.000000 10.174500 134 184 211
169.000000 -170.000000 157.405502 135 185 212
170.000000 -170.000000 157.405502 134 186 211
171.000000 -170.000000 158.602493 134 185 211
172.000000 -170.000000 157.804489 133 184 211
173.000000 -170.000000 158.602493 134 184 211
174.000000 -170.000000 157.804489 133 184 210
175.000000 -170.000000 157.405502 133 184 210
176.000000 -170.000000 157.006500 134 185 211
177.000000 -170.000000 157.205994 134 185 212
179.000000 -170.000000 162.791992 135 186 211
180.000000 -170.000000 162.991501 135 187 212
181.000000 -170.000000 159.599991 135 186 212
182.000000 -170.000000 157.205994 135 186 212
183.000000 -170.000000 157.405502 135 186 212
184.000000 -170.000000 158.403000 135 186 212
185.000000 -170.000000 159.599991 135 186 212
186.000000 -170.000000 159.998993 135 186 212
187.000000 -170.000000 160.397995 136 187 213
188.000000 -170.000000 160.198502 136 187 214
189.000000 -170.000000 162.791992 136 187 213
190.000000 -170.000000 163.390503 136 187 213
194.000000 -170.000000 -3.192000 136 187 212
195.000000 -170.000000 -3.192000 136 187 212
196.000000 -170.000000 -3.192000 135 187 212
197.000000 -170.000000 -1.197000 136 187 212
198.000000 -170.000000 -1.197000 136 187 212
199.000000 -170.000000 -1.197000 136 187 213
200.000000 -170.000000 -0.997500 135 187 212
201.000000 -170.000000 -0.598500 135 187 212
202.000000 -170.000000 -0.199500 135 186 213
203.000000 -170.000000 -0.199500 135 186 212
204.000000 -170.000000 0.199500 136 187 212
205.000000 -170.000000 0.399000 135 187 212
206.000000 -170.000000 0.399000 135 186 212
207.000000 -170.000000 0.399000 135 186 212
208.000000 -170.000000 0.000000 135 186 213
209.000000 -170.000000 -0.399000 135 186 213
210.000000 -170.000000 -0.598500 135 186 213
211.000000 -170.000000 -3.192000 136 187 213
212.000000 -170.000000 -3.192000 136 187 214
213.000000 -170.000000 -3.192000 135 186 213
214.000000 -170.000000 -1.197000 135 186 212
215.000000 -170.000000 -1.197000 135 186 212
216.000000 -170.000000 -0.798000 135 186 212
217.000000 -170.000000 -0.798000 135 186 213
218.000000 -170.000000 -3.192000 134 186 212
219.000000 -170.000000 -3.192000 134 186 211
220.000000 -170.000000 -3.192000 134 185 211
221.000000 -170.000000 -3.192000 133 184 211
222.000000 -170.000000 -1.396500 133 184 210
223.000000 -170.000000 -1.396500 133 184 210
224.000000 -170.000000 -0.997500 132 184 210
225.000000 -170.000000 -0.598500 132 183 209
226.000000 -170.000000 -0.399000 132 183 210
227.000000 -170.000000 0.000000 133 184 211
228.000000 -170.000000 0.000000 133 184 211
229.000000 -170.000000 0.000000 133 184 211
230.000000 -170.000000 0.000000 133 184 210
231.000000 -170.000000 0.000000 132 183 210
232.000000 -170.000000 0.000000 133 184 209
233.000000 -170.000000 -0.598500 133 184 210
234.000000 -170.000000 -0.997500 132 183 210
235.000000 -170.000000 -1.197000 132 183 210
236.000000 -170.000000 -0.997500 132 183 210
237.000000 -170.000000 -0.798000 132 183 210
238.000000 -170.000000 -0.798000 133 183 210
239.000000 -170.000000 -0.399000 133 183 210
240.000000 -170.000000 -0.598500 132 182 209
241.000000 -170.000000 -0.199500 131 182 209
242.000000 -170.000000 0.000000 132 183 209
243.000000 -170.000000 0.399000 131 182 209
244.000000 -170.000000 0.399000 128 178 203
63.000000 -171.000000 -0.598500 134 107 113
64.000000 -171.000000 -0.598500 135 106 113
72.000000 -171.000000 161.195999 54 44 47
73.000000 -171.000000 162.392990 56 46 49
74.000000 -171.000000 162.791992 64 54 59
75.000000 -171.000000 162.791992 69 59 64
76.000000 -171.000000 162.791992 70 60 65
77.000000 -171.000000 162.791992 67 57 62
78.000000 -171.000000 162.991501 66 56 61
79.000000 -171.000000 163.190994 70 60 66
80.000000 -171.000000 163.390503 84 74 78
81.000000 -171.000000 162.991501 107 98 101
90.000000 -171.000000 162.791992 100 99 105
91.000000 -171.000000 162.791992 100 101 105
93.000000 -171.000000 162.991501 114 117 120
97.000000 -171.000000 197.903992 130 136 134
98.000000 -171.000000 197.903992 92 98 96
99.000000 -171.000000 197.903992 68 74 72
102.000000 -171.000000 197.903992 47 58 59
103.000000 -171.000000 197.903992 78 108 120
104.000000 -171.000000 197.903992 122 169 191
105.000000 -171.000000 3.790500 130 180 203
106.000000 -171.000000 3.591000 130 180 203
107.000000 -171.000000 3.591000 130 181 204
108.000000 -171.000000 3.790500 130 180 203
109.000000 -171.000000 4.987500 130 181 204
110.000000 -171.000000 5.586000 129 180 202
111.000000 -171.000000 0.199500 128 180 202
112.000000 -171.000000 0.000000 129 179 202
113.000000 -171.000000 0.000000 129 180 202
114.000000 -171.000000 -1.197000 130 180 203
115.000000 -171.000000 -1.197000 131 181 204
116.000000 -171.000000 -0.199500 131 181 204
117.000000 -171.000000 0.000000 131 181 204
118.000000 -171.000000 0.399000 131 181 204
119.000000 -171.000000 0.997500 131 182 205
120.000000 -171.000000 0.997500 131 182 204
121.000000 -171.000000 3.192000 132 182 205
122.000000 -171.000000 4.588500 133 183 206
123.000000 -171.000000 6.384000 133 183 207
124.000000 -171.000000 6.982500 132 183 207
132.000000 -171.000000 1.396500 131 182 206
133.000000 -171.000000 1.795500 132 182 207
139.000000 -171.000000 2.793000 132 182 207
140.000000 -171.000000 2.992500 131 182 206
141.000000 -171.000000 3.192000 130 181 206
142.000000 -171.000000 3.391500 131 182 207
143.000000 -171.000000 4.588500 132 183 208
144.000000 -171.000000 7.182000 132 182 209
145.000000 -171.000000 10.174500 133 183 210
146.000000 -171.000000 10.174500 133 184 210
169.000000 -171.000000 157.405502 134 185 211
170.000000 -171.000000 158.003998 134 185 210
171.000000 -171.000000 158.403000 133 185 210
172.000000 -171.000000 158.602493 133 184 211
173.000000 -171.000000 159.200989 133 184 210
174.000000 -171.000000 159.200989 133 185 209
175.000000 -171.000000 157.804489 133 185 209
180.000000 -171.000000 162.193497 135 187 211
181.000000 -171.000000 160.198502 135 186 211
182.000000 -171.000000 158.802002 135 186 211
183.000000 -171.000000 158.602493 135 186 211
184.000000 -171.000000 158.802002 134 185 212
185.000000 -171.000000 159.599991 134 185 211
186.000000 -171.000000 159.599991 134 185 210
187.000000 -171.000000 159.998993 135 186 212
188.000000 -171.000000 159.599991 135 186 212
189.000000 -171.000000 159.599991 135 186 212
190.000000 -171.000000 156.407990 136 187 212
194.000000 -171.000000 -3.192000 136 188 213
195.000000 -171.000000 -3.192000 136 188 213
196.000000 -171.000000 -1.197000 136 187 212
197.000000 -171.000000 -0.997500 136 187 212
198.000000 -171.000000 -1.197000 136 187 212
199.000000 -171.000000 -0.997500 135 187 212
200.000000 -171.000000 -0.997500 135 187 211
201.000000 -171.000000 -0.598500 135 186 212
202.000000 -171.000000 -0.199500 135 186 213
203.000000 -171.000000 -0.199500 135 186 212
204.000000 -171.000000 0.199500 136 187 212
205.000000 -171.000000 0.399000 135 187 211
206.000000 -171.000000 0.399000 135 187 211
207.000000 -171.000000 0.399000 135 186 212
208.000000 -171.000000 0.000000 135 187 212
209.000000 -171.000000 -0.399000 135 187 212
210.000000 -171.000000 -0.598500 135 186 213
211.000000 -171.000000 -0.997500 135 186 213
212.000000 -171.000000 -3.192000 136 187 214
213.000000 -171.000000 -3.192000 136 187 213
214.000000 -171.000000 -1.197000 134 186 211
215.000000 -171.000000 -1.197000 135 186 212
216.000000 -171.000000 -0.798000 135 186 213
217.000000 -171.000000 -0.798000 135 186 213
218.000000 -171.000000 -3.192000 134 185 212
219.000000 -171.000000 -3.192000 134 185 212
220.000000 -171.000000 -3.192000 135 185 211
221.000000 -171.000000 -3.192000 134 185 211
222.000000 -171.000000 -1.396500 134 184 211
223.000000 -171.000000 -1.396500 134 185 212
224.000000 -171.000000 -0.997500 133 184 211
225.000000 -171.000000 -0.997500 132 184 210
226.000000 -171.000000 -0.598500 133 184 211
227.000000 -171.000000 -0.399000 133 184 211
228.000000 -171.000000 0.000000 133 184 211
229.000000 -171.000000 0.000000 133 184 211
230.000000 -171.000000 0.199500 133 184 210
231.000000 -171.000000 0.199500 133 183 210
232.000000 -171.000000 0.000000 133 183 209
233.000000 -171.000000 -0.598500 133 184 210
234.000000 -171.000000 -0.997500 133 184 211
235.000000 -171.000000 -0.997500 133 183 210
236.000000 -171.000000 -0.997500 133 183 210
237.000000 -171.000000 -0.997500 133 183 210
238.000000 -171.000000 -0.798000 133 183 210
239.000000 -171.000000 -0.399000 133 183 210
240.000000 -171.000000 -0.399000 132 183 209
241.000000 -171.000000 0.000000 131 182 209
242.000000 -171.000000 0.000000 131 182 209
243.000000 -171.000000 0.399000 131 182 208
244.000000 -171.000000 0.399000 128 178 203
63.000000 -172.000000 -0.199500 122 96 102
64.000000 -172.000000 -0.199500 120 93 99
65.000000 -172.000000 160.597488 103 80 86
69.000000 -172.000000 160.198502 45 34 37
70.000000 -172.000000 160.597488 39 29 32
71.000000 -172.000000 160.597488 35 25 29
72.000000 -172.000000 161.195999 32 22 27
73.000000 -172.000000 162.193497 31 22 26
74.000000 -172.000000 162.392990 33 23 28
75.000000 -172.000000 162.592499 32 24 28
76.000000 -172.000000 162.592499 33 25 29
77.000000 -172.000000 162.592499 32 24 29
78.000000 -172.000000 162.791992 32 23 28
79.000000 -172.000000 162.991501 33 24 29
80.000000 -172.000000 162.991501 37 28 33
83.000000 -172.000000 143.839493 42 36 41
97.000000 -172.000000 197.903992 119 124 123
98.000000 -172.000000 197.903992 90 96 94
99.000000 -172.000000 197.903992 70 77 75
102.000000 -172.000000 197.903992 46 58 59
103.000000 -172.000000 197.903992 76 106 116
104.000000 -172.000000 197.903992 121 168 189
105.000000 -172.000000 3.591000 130 180 203
107.000000 -172.000000 2.793000 130 181 203
108.000000 -172.000000 2.793000 129 180 202
109.000000 -172.000000 3.790500 129 179 202
110.000000 -172.000000 4.987500 129 179 202
111.000000 -172.000000 0.199500 129 179 202
112.000000 -172.000000 0.000000 129 180 202
113.000000 -172.000000 0.000000 129 180 202
114.000000 -172.000000 -3.192000 129 180 202
115.000000 -172.000000 -3.192000 130 180 203
116.000000 -172.000000 -1.197000 131 180 204
117.000000 -172.000000 -0.798000 131 181 204
118.000000 -172.000000 0.000000 131 182 205
119.000000 -172.000000 0.997500 131 182 205
120.000000 -172.000000 0.997500 131 181 204
121.000000 -172.000000 3.192000 131 182 205
122.000000 -172.000000 5.187000 132 183 206
123.000000 -172.000000 6.982500 132 183 206
124.000000 -172.000000 9.576000 132 183 206
140.000000 -172.000000 2.194500 132 183 207
141.000000 -172.000000 2.394000 132 182 206
142.000000 -172.000000 2.394000 132 183 206
143.000000 -172.000000 3.192000 132 183 207
144.000000 -172.000000 4.588500 132 183 208
145.000000 -172.000000 6.783000 133 184 209
146.000000 -172.000000 10.174500 133 184 209
160.000000 -172.000000 72.817497 134 185 210
161.000000 -172.000000 71.420998 134 185 211
162.000000 -172.000000 70.623001 133 185 210
170.000000 -172.000000 157.405502 134 185 210
171.000000 -172.000000 158.203491 133 185 210
172.000000 -172.000000 158.403000 133 184 210
173.000000 -172.000000 159.200989 133 184 210
174.000000 -172.000000 159.200989 133 185 210
175.000000 -172.000000 157.804489 134 185 210
181.000000 -172.000000 160.198502 135 186 211
182.000000 -172.000000 159.599991 135 187 211
183.000000 -172.000000 158.802002 134 186 211
184.000000 -172.000000 158.802002 134 185 211
185.000000 -172.000000 159.599991 134 184 211
186.000000 -172.000000 159.599991 133 185 209
187.000000 -172.000000 160.198502 134 185 211
188.000000 -172.000000 159.799500 134 186 211
189.000000 -172.000000 160.198502 134 186 211
190.000000 -172.000000 162.791992 135 187 211
194.000000 -172.000000 -3.192000 135 187 212
195.000000 -172.000000 -3.192000 135 187 212
196.000000 -172.000000 -1.197000 136 187 213
197.000000 -172.000000 -0.798000 136 187 213
198.000000 -172.000000 -0.997500 136 187 213
199.000000 -172.000000 -0.997500 135 187 212
200.000000 -172.000000 -0.598500 135 187 211
201.000000 -172.000000 -0.598500 135 187 212
202.000000 -172.000000 -0.199500 135 186 213
203.000000 -172.000000 0.000000 135 187 213
204.000000 -172.000000 0.399000 135 187 211
205.000000 -172.000000 0.598500 135 187 211
206.000000 -172.000000 0.399000 135 187 211
207.000000 -172.000000 0.399000 135 187 211
208.000000 -172.000000 0.000000 135 186 211
209.000000 -172.000000 -0.199500 135 186 212
210.000000 -172.000000 -0.399000 135 186 212
211.000000 -172.000000 -0.598500 135 187 212
212.000000 -172.000000 -0.997500 135 186 212
213.000000 -172.000000 -1.197000 135 187 212
214.000000 -172.000000 -1.197000 134 186 210
215.000000 -172.000000 -1.197000 134 185 211
216.000000 -172.000000 -0.798000 134 186 211
217.000000 -172.000000 -0.798000 134 185 211
218.000000 -172.000000 -3.192000 134 185 211
219.000000 -172.000000 -3.192000 134 185 211
220.000000 -172.000000 -3.192000 134 185 211
221.000000 -172.000000 -3.192000 134 185 211
222.000000 -172.000000 -1.396500 134 185 212
223.000000 -172.000000 -1.396500 134 185 212
224.000000 -172.000000 -0.997500 133 184 211
225.000000 -172.000000 -0.997500 133 184 211
226.000000 -172.000000 -0.798000 134 184 211
227.000000 -172.000000 -0.399000 134 185 211
228.000000 -172.000000 -0.399000 134 184 211
229.000000 -172.000000 0.000000 134 184 211
230.000000 -172.000000 0.199500 133 184 211
231.000000 -172.000000 0.199500 133 184 210
232.000000 -172.000000 0.000000 133 183 209
233.000000 -172.000000 -0.399000 133 183 210
234.000000 -172.000000 -0.997500 133 184 210
235.000000 -172.000000 -0.997500 133 183 210
236.000000 -172.000000 -0.997500 133 183 210
237.000000 -172.000000 -0.997500 133 183 210
238.000000 -172.000000 -0.598500 133 183 210
239.000000 -172.000000 -0.399000 132 182 209
240.000000 -172.000000 -0.399000 131 182 208
241.000000 -172.000000 0.000000 131 182 208
242.000000 -172.000000 0.199500 131 182 208
243.000000 -172.000000 0.598500 131 182 208
244.000000 -172.000000 0.598500 128 178 204
63.000000 -173.000000 0.000000 71 54 60
64.000000 -173.000000 0.000000 61 44 50
65.000000 -173.000000 160.597488 49 35 41
66.000000 -173.000000 159.599991 37 25 30
67.000000 -173.000000 159.998993 29 18 23
68.000000 -173.000000 159.799500 24 14 18
69.000000 -173.000000 160.397995 21 12 15
70.000000 -173.000000 160.597488 19 10 14
71.000000 -173.000000 160.597488 18 9 13
72.000000 -173.000000 160.996490 17 9 13
73.000000 -173.000000 162.193497 17 8 13
74.000000 -173.000000 162.193497 16 8 12
75.000000 -173.000000 162.392990 16 8 12
82.000000 -173.000000 143.639999 21 13 18
83.000000 -173.000000 143.839493 21 14 19
84.000000 -173.000000 143.639999 22 16 20
87.000000 -173.000000 197.903992 24 21 25
88.000000 -173.000000 197.903992 26 25 28
89.000000 -173.000000 197.903992 29 29 32
93.000000 -173.000000 197.903992 44 48 50
94.000000 -173.000000 197.903992 52 56 58
95.000000 -173.000000 197.903992 63 67 69
96.000000 -173.000000 197.903992 69 74 75
97.000000 -173.000000 197.903992 67 72 72
98.000000 -173.000000 197.903992 63 69 69
101.000000 -173.000000 197.903992 50 58 58
102.000000 -173.000000 197.903992 49 60 61
103.000000 -173.000000 197.903992 74 103 112
104.000000 -173.000000 197.903992 120 167 187
105.000000 -173.000000 -3.192000 131 180 203
107.000000 -173.000000 -3.192000 131 180 203
108.000000 -173.000000 -3.192000 129 179 203
109.000000 -173.000000 -0.598500 129 179 202
110.000000 -173.000000 -0.598500 129 179 202
111.000000 -173.000000 0.000000 129 179 202
112.000000 -173.000000 -0.199500 129 179 202
113.000000 -173.000000 -1.396500 129 179 202
114.000000 -173.000000 -3.192000 129 179 203
115.000000 -173.000000 -3.192000 130 180 203
116.000000 -173.000000 -3.192000 130 180 204
117.000000 -173.000000 -3.192000 131 181 205
118.000000 -173.000000 -0.798000 131 182 205
119.000000 -173.000000 0.399000 131 182 205
120.000000 -173.000000 0.399000 130 181 204
121.000000 -173.000000 0.997500 131 181 205
123.000000 -173.000000 6.184500 131 183 206
124.000000 -173.000000 9.576000 131 182 205
140.000000 -173.000000 -3.192000 131 183 206
141.000000 -173.000000 -3.192000 131 183 207
142.000000 -173.000000 0.199500 131 183 207
143.000000 -173.000000 2.394000 132 184 207
144.000000 -173.000000 2.992500 132 184 208
161.000000 -173.000000 71.021996 134 185 209
162.000000 -173.000000 70.623001 133 184 209
171.000000 -173.000000 156.806992 134 185 210
172.000000 -173.000000 158.003998 134 185 210
173.000000 -173.000000 158.403000 134 185 210
182.000000 -173.000000 158.802002 134 186 211
183.000000 -173.000000 158.602493 134 185 210
184.000000 -173.000000 158.602493 134 185 211
185.000000 -173.000000 159.400497 134 185 210
186.000000 -173.000000 159.599991 133 185 209
187.000000 -173.000000 191.320496 134 185 210
188.000000 -173.000000 191.320496 134 186 211
189.000000 -173.000000 191.519989 134 185 210
190.000000 -173.000000 191.519989 134 186 210
194.000000 -173.000000 -3.192000 135 187 211
195.000000 -173.000000 -3.192000 135 187 211
196.000000 -173.000000 -0.798000 135 187 212
197.000000 -173.000000 -0.598500 136 187 212
198.000000 -173.000000 -0.598500 136 187 212
199.000000 -173.000000 -0.598500 135 186 212
200.000000 -173.000000 -0.598500 135 187 212
201.000000 -173.000000 -0.199500 135 187 212
202.000000 -173.000000 -0.199500 135 186 212
203.000000 -173.000000 0.000000 135 186 212
204.000000 -173.000000 0.399000 135 187 211
205.000000 -173.000000 0.598500 135 186 211
206.000000 -173.000000 0.598500 135 187 211
207.000000 -173.000000 0.598500 135 187 211
208.000000 -173.000000 0.399000 135 186 211
209.000000 -173.000000 0.000000 135 186 212
210.000000 -173.000000 -0.199500 135 186 211
211.000000 -173.000000 -0.399000 135 186 211
212.000000 -173.000000 -0.598500 134 186 211
213.000000 -173.000000 -0.598500 134 186 211
214.000000 -173.000000 -1.197000 133 185 209
215.000000 -173.000000 -1.197000 133 185 209
216.000000 -173.000000 -0.798000 133 185 209
217.000000 -173.000000 -0.798000 133 185 210
218.000000 -173.000000 -3.192000 134 186 210
219.000000 -173.000000 -3.192000 134 185 210
220.000000 -173.000000 -3.192000 133 185 210
221.000000 -173.000000 -3.192000 133 184 210
222.000000 -173.000000 -3.192000 134 185 210
223.000000 -173.000000 -3.192000 134 185 210
224.000000 -173.000000 -0.997500 133 184 210
225.000000 -173.000000 -0.997500 133 184 210
226.000000 -173.000000 -0.798000 134 184 210
227.000000 -173.000000 -0.598500 134 185 210
228.000000 -173.000000 -0.399000 134 184 210
229.000000 -173.000000 0.000000 133 184 210
230.000000 -173.000000 0.199500 133 184 210
231.000000 -173.000000 0.399000 133 184 210
232.000000 -173.000000 0.199500 133 183 209
233.000000 -173.000000 0.000000 133 183 209
234.000000 -173.000000 -0.399000 132 183 209
235.000000 -173.000000 -0.997500 133 184 209
236.000000 -173.000000 -0.997500 134 184 209
237.000000 -173.000000 -0.598500 133 183 209
238.000000 -173.000000 -0.598500 132 182 209
239.000000 -173.000000 0.000000 132 182 208
240.000000 -173.000000 -0.199500 131 182 207
241.000000 -173.000000 0.000000 131 181 207
242.000000 -173.000000 0.399000 131 181 207
243.000000 -173.000000 0.798000 131 182 208
244.000000 -173.000000 0.798000 128 178 203
63.000000 -174.000000 0.199500 30 21 28
64.000000 -174.000000 0.199500 26 18 24
65.000000 -174.000000 159.998993 23 15 22
66.000000 -174.000000 159.599991 21 13 18
67.000000 -174.000000 159.599991 19 11 16
68.000000 -174.000000 159.599991 17 9 15
69.000000 -174.000000 160.198502 16 9 13
70.000000 -174.000000 160.597488 16 7 13
71.000000 -174.000000 160.597488 15 7 13
72.000000 -174.000000 162.193497 14 7 12
73.000000 -174.000000 162.392990 14 7 13
74.000000 -174.000000 162.193497 14 8 13
82.000000 -174.000000 143.639999 27 19 25
83.000000 -174.000000 143.639999 27 20 25
84.000000 -174.000000 142.841995 26 20 25
85.000000 -174.000000 142.841995 25 20 25
86.000000 -174.000000 143.041489 26 21 26
87.000000 -174.000000 197.903992 25 22 27
88.000000 -174.000000 197.903992 26 24 29
89.000000 -174.000000 197.903992 26 26 30
92.000000 -174.000000 197.903992 31 34 37
93.000000 -174.000000 197.903992 33 37 39
94.000000 -174.000000 197.903992 36 39 42
95.000000 -174.000000 197.903992 39 43 46
96.000000 -174.000000 136.657501 40 45 48
97.000000 -174.000000 136.657501 39 44 47
102.000000 -174.000000 197.903992 39 47 50
103.000000 -174.000000 197.903992 56 76 83
104.000000 -174.000000 197.903992 100 140 157
107.000000 -174.000000 -3.192000 131 180 203
108.000000 -174.000000 -3.192000 130 180 203
109.000000 -174.000000 -3.192000 129 179 203
110.000000 -174.000000 -1.197000 129 179 203
111.000000 -174.000000 -0.399000 129 179 203
112.000000 -174.000000 -1.197000 129 179 203
113.000000 -174.000000 -1.396500 129 179 203
114.000000 -174.000000 -3.192000 129 179 203
115.000000 -174.000000 -3.192000 130 180 204
116.000000 -174.000000 -3.192000 131 181 205
117.000000 -174.000000 -3.192000 130 181 205
118.000000 -174.000000 -3.192000 131 182 206
119.000000 -174.000000 -0.199500 131 182 206
120.000000 -174.000000 -0.199500 131 181 205
135.000000 -174.000000 -3.192000 132 183 207
136.000000 -174.000000 -3.192000 131 183 206
137.000000 -174.000000 -3.192000 131 183 206
138.000000 -174.000000 -3.192000 132 184 208
152.000000 -174.000000 32.917500 132 184 208
153.000000 -174.000000 33.117001 133 184 209
154.000000 -174.000000 36.109501 133 185 209
155.000000 -174.000000 37.904999 133 185 209
161.000000 -174.000000 71.021996 133 184 208
162.000000 -174.000000 71.021996 132 184 208
163.000000 -174.000000 70.623001 132 184 208
182.000000 -174.000000 158.003998 134 185 210
183.000000 -174.000000 157.604996 133 185 209
184.000000 -174.000000 157.604996 133 185 209
185.000000 -174.000000 159.400497 133 185 209
186.000000 -174.000000 191.519989 133 185 208
187.000000 -174.000000 191.519989 134 186 209
188.000000 -174.000000 191.519989 134 185 210
189.000000 -174.000000 191.519989 133 185 209
190.000000 -174.000000 191.519989 134 185 210
194.000000 -174.000000 -3.192000 136 188 211
195.000000 -174.000000 -3.192000 135 187 211
196.000000 -174.000000 -0.598500 135 187 211
197.000000 -174.000000 -0.399000 135 186 211
198.000000 -174.000000 -0.399000 135 186 211
199.000000 -174.000000 -0.399000 135 186 211
200.000000 -174.000000 -0.399000 135 187 211
201.000000 -174.000000 -0.199500 135 187 211
202.000000 -174.000000 0.000000 134 186 211
203.000000 -174.000000 0.000000 135 186 211
204.000000 -174.000000 0.399000 135 187 211
205.000000 -174.000000 0.598500 135 187 211
206.000000 -174.000000 0.598500 135 186 210
207.000000 -174.000000 0.598500 135 186 210
208.000000 -174.000000 0.598500 134 186 210
209.000000 -174.000000 0.399000 135 186 211
210.000000 -174.000000 0.000000 134 186 210
211.000000 -174.000000 0.000000 134 186 210
212.000000 -174.000000 -0.399000 133 185 209
213.000000 -174.000000 -0.598500 133 185 210
214.000000 -174.000000 -0.598500 133 185 209
215.000000 -174.000000 -0.798000 132 184 208
216.000000 -174.000000 -0.798000 132 184 208
217.000000 -174.000000 -0.798000 133 184 209
218.000000 -174.000000 -3.192000 133 185 209
219.000000 -174.000000 -3.192000 133 184 209
220.000000 -174.000000 -3.192000 133 183 208
221.000000 -174.000000 -3.192000 133 184 209
222.000000 -174.000000 -3.192000 134 185 209
223.000000 -174.000000 -3.192000 134 185 209
224.000000 -174.000000 -0.997500 133 184 208
225.000000 -174.000000 -0.798000 133 184 208
226.000000 -174.000000 -0.798000 134 184 209
227.000000 -174.000000 -0.598500 134 184 209
228.000000 -174.000000 -0.399000 133 183 208
229.000000 -174.000000 -0.199500 133 183 209
230.000000 -174.000000 0.000000 132 183 208
231.000000 -174.000000 0.399000 133 184 208
232.000000 -174.000000 0.199500 133 183 208
233.000000 -174.000000 0.000000 132 182 208
234.000000 -174.000000 -0.399000 131 182 207
235.000000 -174.000000 -0.399000 132 183 208
236.000000 -174.000000 -0.399000 133 183 208
237.000000 -174.000000 -0.199500 133 183 208
238.000000 -174.000000 -0.199500 132 182 207
239.000000 -174.000000 0.000000 131 182 207
240.000000 -174.000000 -0.199500 131 181 206
241.000000 -174.000000 0.199500 131 181 206
242.000000 -174.000000 0.399000 131 181 206
243.000000 -174.000000 0.798000 131 181 206
244.000000 -174.000000 0.798000 128 177 202
63.000000 -175.000000 0.199500 24 17 24
64.000000 -175.000000 0.199500 23 15 22
65.000000 -175.000000 159.599991 21 14 21
66.000000 -175.000000 159.599991 22 14 19
67.000000 -175.000000 159.599991 22 15 20
68.000000 -175.000000 159.599991 24 15 21
69.000000 -175.000000 160.597488 25 16 22
70.000000 -175.000000 162.193497 26 17 23
71.000000 -175.000000 162.592499 27 19 24
72.000000 -175.000000 162.791992 29 21 26
73.000000 -175.000000 162.592499 32 24 30
74.000000 -175.000000 162.193497 36 28 34
78.000000 -175.000000 160.996490 56 49 53
79.000000 -175.000000 161.595001 63 55 59
80.000000 -175.000000 162.193497 72 64 68
81.000000 -175.000000 143.639999 89 80 84
82.000000 -175.000000 143.639999 105 96 100
84.000000 -175.000000 142.841995 89 82 86
85.000000 -175.000000 142.841995 83 77 82
86.000000 -175.000000 143.041489 79 74 79
87.000000 -175.000000 143.639999 76 72 77
92.000000 -175.000000 197.903992 68 71 74
93.000000 -175.000000 197.903992 68 70 74
94.000000 -175.000000 197.903992 69 72 76
95.000000 -175.000000 136.258499 73 77 81
96.000000 -175.000000 136.258499 69 74 78
97.000000 -175.000000 136.258499 53 58 63
103.000000 -175.000000 197.903992 31 43 47
106.000000 -175.000000 -3.192000 130 180 202
107.000000 -175.000000 -3.192000 131 180 202
108.000000 -175.000000 -3.192000 130 180 202
109.000000 -175.000000 -0.598500 129 179 202
110.000000 -175.000000 -0.598500 129 179 203
111.000000 -175.000000 -0.798000 130 180 204
112.000000 -175.000000 -1.197000 130 180 203
113.000000 -175.000000 -3.192000 129 180 203
114.000000 -175.000000 -3.192000 130 180 204
115.000000 -175.000000 -3.192000 130 181 205
116.000000 -175.000000 -3.192000 131 181 205
117.000000 -175.000000 -3.192000 130 182 205
118.000000 -175.000000 -3.192000 131 182 205
119.000000 -175.000000 -0.798000 131 182 206
120.000000 -175.000000 -0.798000 131 181 205
136.000000 -175.000000 -3.192000 132 183 206
137.000000 -175.000000 -3.192000 132 183 206
138.000000 -175.000000 -3.192000 132 184 207
139.000000 -175.000000 -3.192000 132 184 207
140.000000 -175.000000 -3.192000 132 183 206
152.000000 -175.000000 32.917500 131 183 207
153.000000 -175.000000 35.510998 132 184 207
154.000000 -175.000000 37.904999 133 185 208
155.000000 -175.000000 39.301498 133 185 208
156.000000 -175.000000 39.700500 132 184 207
162.000000 -175.000000 71.021996 132 184 208
185.000000 -175.000000 157.604996 132 184 208
186.000000 -175.000000 191.519989 132 184 208
187.000000 -175.000000 191.519989 133 185 209
188.000000 -175.000000 191.519989 133 185 208
189.000000 -175.000000 191.519989 132 184 208
190.000000 -175.000000 191.519989 133 185 209
191.000000 -175.000000 191.519989 134 185 210
194.000000 -175.000000 -3.192000 134 186 209
195.000000 -175.000000 -3.192000 134 186 210
196.000000 -175.000000 -0.598500 134 186 210
197.000000 -175.000000 -0.399000 134 186 210
198.000000 -175.000000 -0.399000 134 186 210
199.000000 -175.000000 -0.399000 134 185 210
200.000000 -175.000000 -0.199500 134 186 210
201.000000 -175.000000 -0.199500 134 186 210
202.000000 -175.000000 -0.199500 134 186 210
203.000000 -175.000000 0.000000 134 186 210
204.000000 -175.000000 0.000000 134 186 210
205.000000 -175.000000 0.199500 134 186 210
206.000000 -175.000000 0.399000 134 186 210
207.000000 -175.000000 0.598500 134 185 209
208.000000 -175.000000 0.598500 134 185 209
209.000000 -175.000000 0.399000 134 185 209
210.000000 -175.000000 0.000000 134 185 209
211.000000 -175.000000 0.000000 133 185 209
212.000000 -175.000000 -0.199500 133 184 208
213.000000 -175.000000 -0.199500 133 184 208
214.000000 -175.000000 -0.399000 132 184 208
215.000000 -175.000000 -0.399000 132 183 208
216.000000 -175.000000 -0.399000 132 183 207
217.000000 -175.000000 -0.798000 132 183 208
218.000000 -175.000000 -3.192000 133 184 209
219.000000 -175.000000 -3.192000 133 184 209
220.000000 -175.000000 -3.192000 133 183 208
221.000000 -175.000000 -3.192000 133 184 209
222.000000 -175.000000 -3.192000 133 185 209
223.000000 -175.000000 -3.192000 133 184 209
224.000000 -175.000000 -1.197000 133 183 208
225.000000 -175.000000 -0.798000 132 183 208
226.000000 -175.000000 -0.798000 133 184 209
227.000000 -175.000000 -0.598500 133 184 209
228.000000 -175.000000 -0.598500 132 183 208
229.000000 -175.000000 -0.399000 132 182 208
230.000000 -175.000000 -0.199500 132 182 208
231.000000 -175.000000 0.000000 132 183 208
232.000000 -175.000000 0.000000 132 182 208
233.000000 -175.000000 -0.199500 131 182 207
234.000000 -175.000000 -0.399000 131 182 207
235.000000 -175.000000 -0.399000 132 182 207
236.000000 -175.000000 -0.399000 132 183 207
237.000000 -175.000000 0.000000 132 182 207
238.000000 -175.000000 -0.199500 131 182 206
239.000000 -175.000000 0.199500 130 181 206
240.000000 -175.000000 -0.199500 131 181 206
241.000000 -175.000000 0.199500 131 181 206
242.000000 -175.000000 0.399000 130 181 205
243.000000 -175.000000 0.798000 129 180 204
244.000000 -175.000000 0.798000 127 176 201
63.000000 -176.000000 0.000000 44 34 40
64.000000 -176.000000 159.599991 51 40 46
65.000000 -176.000000 160.198502 54 41 47
66.000000 -176.000000 159.599991 57 44 49
67.000000 -176.000000 159.799500 60 48 52
68.000000 -176.000000 160.796997 61 49 53
69.000000 -176.000000 162.392990 61 49 53
70.000000 -176.000000 162.592499 60 50 53
71.000000 -176.000000 162.592499 60 50 52
72.000000 -176.000000 162.791992 60 50 53
73.000000 -176.000000 162.592499 64 55 58
77.000000 -176.000000 160.996490 82 72 76
78.000000 -176.000000 161.195999 86 76 80
79.000000 -176.000000 161.595001 91 82 85
80.000000 -176.000000 162.193497 101 91 95
84.000000 -176.000000 143.041489 138 129 131
85.000000 -176.000000 142.841995 129 121 125
86.000000 -176.000000 143.041489 125 119 123
94.000000 -176.000000 135.261002 148 151 153
95.000000 -176.000000 135.261002 173 177 179
96.000000 -176.000000 136.258499 188 193 195
97.000000 -176.000000 136.457993 158 164 165
106.000000 -176.000000 -3.192000 130 179 200
107.000000 -176.000000 -3.192000 131 180 202
108.000000 -176.000000 -0.997500 131 180 202
109.000000 -176.000000 -0.399000 130 180 202
110.000000 -176.000000 -0.399000 130 180 202
111.000000 -176.000000 -0.598500 130 180 203
112.000000 -176.000000 -0.997500 130 181 203
113.000000 -176.000000 -0.997500 130 181 204
114.000000 -176.000000 -3.192000 131 182 205
115.000000 -176.000000 -3.192000 131 182 205
116.000000 -176.000000 -3.192000 130 182 204
117.000000 -176.000000 -3.192000 130 181 204
118.000000 -176.000000 -3.192000 131 182 205
119.000000 -176.000000 -3.192000 131 182 205
138.000000 -176.000000 -3.192000 133 184 207
